ply
format ascii 1.0
comment Generated by the ZED SDK.
element vertex 833
property float32 x
property float32 y
property float32 z
property float32 nx
property float32 ny
property float32 nz
property uchar red
property uchar green
property uchar blue
end_header
1.04 -0.532877 0.08 0.0087975 0.999892 -0.0117803 86 87 81
1.12 -0.534116 0.08 0.0143175 0.999826 -0.0119176 96 98 91
1.2 -0.534478 0.08 0.00823957 0.999887 -0.0125611 105 107 98
1.28 -0.535922 0.08 0.0172939 0.999846 -0.00305865 91 92 85
0.72 -0.531967 -0 0.0124971 0.999784 0.0166255 175 175 167
0.64 -0.530337 -0 0.0203636 0.999728 0.0113352 175 175 167
0.8 -0.532055 -0 -0.00262855 0.999979 0.00585723 161 163 152
0.88 -0.532215 -0 -0.00679503 0.999868 -0.0147444 143 144 134
0.96 -0.531844 -0 0.00985027 0.999949 -0.00202391 111 113 102
1.04 -0.53282 -0 0.0135918 0.999906 0.00153971 109 110 104
1.12 -0.534152 -0 0.019413 0.999812 -0.000164445 112 114 107
1.2 -0.535973 -0 0.00254741 0.999897 -0.0141355 112 112 107
1.28 -0.53529 -0 0.00475156 0.999974 -0.00540108 99 101 94
-0.88 0.08 0.923451 -0.00966553 0.0114548 -0.999888 86 83 75
-0.96 0.16 0.881169 0.271876 -0.222904 -0.936161 86 83 75
-0.88 0.16 0.934956 0.270642 0.217492 -0.93779 86 83 75
-0.96 0.08 0.928681 -0.00697528 -0.0110966 -0.999914 86 83 75
-0.8 0.08 0.91237 -0.0380992 0.187225 -0.981578 86 85 76
-0.8 0.16 0.948178 0.0415355 0.361564 -0.931422 86 85 76
-0.72 0.08 0.915926 -0.0801363 0.222391 -0.971659 89 85 76
-0.72 0.16 0.934316 -0.183515 0.198279 -0.962812 89 85 76
-0.64 0.08 0.903149 -0.178332 0.171014 -0.968995 91 87 79
-0.64 0.16 0.913629 -0.248364 0.125819 -0.960461 91 87 79
-0.96 -0 0.90704 0.0116355 0.263352 -0.96463 87 83 72
-1.04 0.08 0.93818 -0.109241 0.263806 -0.95837 87 83 72
-1.04 -0 0.915755 -0.104326 0.268433 -0.957632 87 83 72
-0.88 -0 0.917814 -0.0155034 0.118992 -0.992774 85 81 70
-0.8 -0 0.912641 -0.117096 0.0149894 -0.993007 87 81 70
-0.72 -0 0.901898 -0.0994068 0.128169 -0.986758 90 84 72
-0.64 -0 0.889319 -0.154254 0.169483 -0.973386 90 85 73
-1.92682 0.32 1.84 0.875051 -0.446515 -0.186841 48 47 48
-1.92 0.334144 1.84 0.882816 -0.425425 -0.199121 48 47 48
-1.92 0.32 1.87022 0.845622 -0.498542 -0.190732 48 47 48
-1.92 0.307091 1.92 0.67075 -0.721103 -0.173505 58 58 58
-1.99602 0.24 1.92 0.797884 -0.595296 0.0948918 58 58 58
-1.96842 0.24 1.84 0.848359 -0.441153 0.292697 58 58 58
-1.92505 0.4 1.76 -0.235829 -0.770749 -0.591887 38 38 40
-2 0.4 1.78986 -0.235829 -0.770749 -0.591887 38 38 40
-2 0.422933 1.76 -0.235829 -0.770749 -0.591887 38 38 40
-2.48 0.08 1.57049 -0.267247 -0.0759524 -0.96063 75 76 75
-2.5146 0.08 1.6 -0.647493 -0.0659796 -0.75921 75 76 75
-2.48 0.16 1.59391 -0.128668 0.278646 -0.951736 75 76 75
-2.49082 0.16 1.6 -0.48533 0.144287 -0.862344 75 76 75
-2.41182 0.08 1.52 -0.93533 0.187455 0.300029 65 65 64
-2.4 0.08 1.55517 -0.934399 0.168325 0.31395 65 65 64
-2.4 0.120707 1.52 -0.913946 0.265342 0.307078 65 65 64
-2.42194 0.08 1.6 0.534227 -0.312495 -0.785461 65 65 64
-2.4 0.16 1.5831 0.119681 0.0366624 -0.992135 65 65 64
-2.4 0.146504 1.6 0.921268 -0.303947 -0.242657 65 65 64
-2.48 -0 1.57835 0.2909 -0.246496 -0.924455 80 81 79
-2.50645 -0 1.6 -0.6346 -0.0739627 -0.769294 80 81 79
-2.41121 -0 1.6 0.365298 -0.0291345 -0.930435 63 63 61
-2.4 -0 1.56781 -0.983573 -0.0401216 0.175992 63 63 61
-2.40659 -0 1.52 -0.988558 -0.0645675 0.136321 63 63 61
-1.94394 0.4 2.48 0.917923 0.0417164 0.394559 49 50 47
-1.92 0.4 2.42125 0.925562 0.025058 0.377766 49 50 47
-1.92 0.48 2.45508 0.865355 -0.106361 0.489742 49 50 47
-1.93515 0.48 2.48 0.850701 -0.0933962 0.517286 49 50 47
-1.92149 0.32 2.48 0.865397 0.286006 0.411446 53 53 51
-1.92 0.32 2.47688 0.864364 0.287073 0.412872 53 53 51
-2 0.603578 2.32 -0.0848018 0.986328 -0.141298 69 60 47
-2 0.64 2.38029 0.485178 0.748462 -0.452114 69 60 47
-1.98164 0.64 2.4 0.458087 0.764659 -0.453269 69 60 47
-1.92 0.607621 2.4 0.0914154 0.985748 -0.141222 69 60 47
-1.92 0.635697 2.32 -0.372349 0.927446 0.0346282 69 60 47
-1.92 0.614825 2.24 -0.274746 0.951118 -0.141032 74 66 53
-2 0.600424 2.24 -0.177034 0.983441 -0.0387756 74 66 53
-1.93458 0.56 2.16 0.90202 0.102092 -0.419449 126 110 79
-1.92 0.56 2.18383 0.849606 0.0898955 -0.5197 126 110 79
-1.92 0.48 2.16999 0.91776 0.0449597 -0.394582 126 110 79
-1.92426 0.48 2.16 0.996853 0.0743233 0.0275687 126 110 79
-1.92 0.4 2.17562 0.939664 0.298705 -0.166755 51 46 40
-1.92273 0.4 2.16 0.79749 0.317667 -0.512931 51 46 40
-1.92 0.394572 2.16 0.874244 0.44054 -0.204015 44 43 41
-1.92 0.48 2.15447 0.790891 0.0963278 0.604328 106 85 59
-1.92 0.523049 2.08 0.765634 0.501345 0.403061 106 85 59
-1.94398 0.56 2.08 0.759256 0.492643 0.425244 106 85 59
-1.93746 0.4 2.08 0.948961 -0.27917 0.146753 123 107 76
-1.92 0.428548 2.08 0.833784 -0.510081 0.211237 123 107 76
-1.92 0.32 2.11163 0.886235 0.261503 -0.382365 55 51 48
-1.93348 0.32 2.08 0.987633 0.139883 -0.0708026 55 51 48
-2 0.199792 2.08 -0.105192 -0.902624 -0.417377 43 44 42
-2 0.16 2.11317 -0.50149 -0.553936 -0.664578 43 44 42
-2.06206 0.16 2.16 -0.490421 -0.566502 -0.662241 43 44 42
-2.08 0.175433 2.16 -0.430874 -0.647902 -0.628148 43 44 42
-2.08 0.20678 2.08 -0.0810663 -0.92801 -0.363627 43 44 42
-1.92 0.56 2.0408 0.746378 0.484288 0.456492 148 136 121
-1.92 0.4 2.01106 0.957702 -0.151575 0.244606 60 53 47
-1.92 0.32 2.02851 0.966468 0.00169753 0.25678 53 50 46
-1.93777 0.24 2.08 0.840402 -0.488734 0.23423 59 58 57
-1.92 0.24 2.01735 0.768145 -0.513276 0.382755 59 58 57
-1.92 0.227251 2 0.582303 -0.744398 0.326794 42 42 40
-2 0.236455 2 -0.104026 -0.904145 -0.414368 42 42 40
-2.56 0.459641 1.92 0.583126 -0.780069 0.226842 68 57 45
-2.53277 0.48 1.92 0.583126 -0.780069 0.226842 68 57 45
-2.56 0.48 1.99001 0.583126 -0.780069 0.226842 68 57 45
-2.55719 0.4 2 0.75798 0.0209041 -0.651943 68 57 45
-2.56 0.4 1.99674 0.75798 0.0208778 -0.651943 68 57 45
-2.56 0.437296 2 0.756914 0.0569843 -0.651026 68 57 45
-2.56 0.341021 2 0.757652 -0.03607 -0.651661 121 119 117
-2.56 0.24 1.98829 0.828541 0.506389 0.238935 126 127 122
-2.54031 0.24 1.92 0.828541 0.506389 0.238935 126 127 122
-2.56 0.272223 1.92 0.828541 0.506389 0.238935 126 127 122
-1.99602 0.24 1.92 0.545727 -0.618337 -0.565545 65 65 64
-1.92 0.307091 1.92 0.545727 -0.618337 -0.565545 65 65 64
-1.92 0.24 1.99335 0.545727 -0.618337 -0.565545 65 65 64
-3.68 0.56 0.628867 0.634396 -0.366461 0.680623 42 37 54
-3.60611 0.56 0.56 0.774372 -0.291047 0.561818 42 37 54
-3.68 0.580677 0.64 0.623473 -0.39121 0.676932 42 37 54
-3.63367 0.64 0.64 0.68186 -0.392185 0.617461 42 37 54
-3.6 0.578678 0.56 0.794932 -0.271438 0.542591 42 37 54
-3.6 0.64 0.595708 0.750868 -0.332348 0.570737 42 37 54
-3.62082 -0 0.64 0.790832 -0.293677 0.536971 38 32 50
-3.6 -0 0.60934 0.790832 -0.293677 0.536971 38 32 50
-3.6 0.0560599 0.64 0.790832 -0.293677 0.536971 38 32 50
-3.42098 0.64 0.4 0.773985 -0.130012 0.619713 45 38 55
-3.44 0.64 0.423751 0.772086 -0.130798 0.621912 45 38 55
-3.43442 0.56 0.4 0.720023 -0.150887 0.677348 45 38 55
-3.44 0.56 0.405895 0.717911 -0.151648 0.679416 45 38 55
-2 -0.475482 1.12 -0.0904872 0.994935 -0.0437728 94 88 75
-2.04776 -0.48 1.12 -0.0941651 0.995355 -0.0200359 94 88 75
-2 -0.48 1.18917 -0.0939855 0.993457 0.0648906 94 88 75
-2 -0.48 1.07489 -0.100197 0.990014 -0.0991616 84 80 68
-1.96713 -0.48 1.04 -0.0919477 0.991822 -0.0885199 108 102 88
-1.92 -0.475754 1.04 -0.0827366 0.993528 -0.0778195 108 102 88
-1.92 -0.472514 1.12 -0.0370339 0.998496 -0.0404382 108 102 88
-1.92 -0.48 0.987409 -0.0894313 0.992763 -0.0801449 99 94 83
-1.92 -0.481883 0.88 -0.11483 0.991453 -0.0619343 165 162 153
-2 -0.486088 0.96 -0.0749766 0.99693 -0.0225764 165 162 153
-1.92 -0.483311 0.96 -0.0346814 0.999239 0.0178402 165 162 153
-2 -0.491149 0.88 -0.0713571 0.997286 -0.0181498 165 162 153
-2.08 -0.491553 0.8 -0.0222026 0.998454 0.0509563 161 162 150
-2.16 -0.496474 0.88 -0.0138822 0.998772 0.0475579 161 162 150
-2.08 -0.49591 0.88 -0.0259677 0.998549 0.0471775 161 162 150
-2.16 -0.493214 0.8 -0.0207416 0.998956 0.0407099 161 162 150
-2 -0.489108 0.8 -0.0201829 0.999712 0.0130111 166 165 155
-1.92 -0.48688 0.8 -0.0497019 0.998627 -0.0165635 172 170 161
-1.92 -0.488062 0.72 -0.00490194 0.999922 0.0115145 179 179 172
-2 -0.487842 0.72 -0.00674958 0.99993 0.00966746 179 179 172
-2.48 -0.498868 0.64 -0.0138384 0.998442 -0.0540502 150 150 142
-2.56 -0.495646 0.72 -0.0138632 0.998441 -0.0540749 150 150 142
-2.48 -0.49381 0.72 -0.0228976 0.997746 -0.0630813 150 150 142
-2.56 -0.499253 0.64 -0.00480181 0.998974 -0.045035 150 150 142
-2.24 -0.489886 0.64 -0.0532719 0.997365 -0.0492383 152 151 143
-2.32 -0.49021 0.72 -0.0532896 0.997364 -0.0492561 152 151 143
-2.24 -0.489389 0.72 -0.0102595 0.999928 -0.00621557 152 151 143
-2.32 -0.497644 0.64 -0.0961061 0.991101 -0.0920979 152 151 143
-1.92 -0.486261 0.64 -0.0162377 0.999862 0.00352448 182 182 174
-2 -0.48908 0.64 -0.0352118 0.99926 -0.0154616 182 182 174
1.60012 1.2 3.2 0.45111 0.641247 -0.620727 65 70 68
1.6 1.2 3.19991 0.45111 0.641247 -0.620727 65 70 68
1.6 1.20009 3.2 0.45111 0.641247 -0.620727 65 70 68
1.70446 1.28 3.12 -0.98979 -0.0634448 -0.127633 64 70 68
1.70069 1.2 3.2 -0.993533 0.0265348 -0.110398 64 70 68
1.6971 1.28 3.2 -0.994799 -0.0447096 -0.0915214 64 70 68
1.7101 1.2 3.12 -0.99092 -0.0201631 -0.132935 64 70 68
1.69169 1.12 3.2 -0.978618 -0.00710049 -0.205563 61 67 66
1.71103 1.12 3.12 -0.992331 0.0538137 -0.111282 61 67 66
1.697 1.04 3.2 -0.99968 0.00612756 -0.0245269 59 65 64
1.69322 1.04 3.12 -0.999618 0.0273942 -0.00360058 59 65 64
1.70221 0.96 3.2 -0.991358 -0.0736721 -0.108546 58 63 63
1.71522 0.96 3.12 -0.994224 -0.0282606 -0.103533 58 63 63
1.70055 0.88 3.2 -0.994916 0.0259468 -0.0973076 57 62 61
1.70665 0.88 3.12 -0.996788 -0.0214717 -0.0771472 57 62 61
1.70144 0.8 3.2 -0.976175 0.0484335 -0.21151 56 60 61
1.7229 0.8 3.12 -0.997917 0.0303367 -0.0569392 56 60 61
1.68419 0.72 3.2 -0.961249 0.0900578 -0.260556 55 59 58
1.70595 0.72 3.12 -0.986987 0.137342 -0.0836337 55 59 58
1.68541 0.64 3.2 -0.981073 0.0721094 -0.179708 55 59 58
1.69291 0.64 3.12 -0.982291 0.186106 -0.0216444 55 59 58
1.71674 1.28 3.04 -0.999053 -0.0366068 -0.0234942 58 64 63
1.71879 1.2 3.04 -0.996512 0.0698704 0.0456186 58 64 63
1.70274 1.12 3.04 -0.989016 0.130259 0.0698511 58 62 63
1.71808 0.96 3.04 -0.988354 0.110379 0.104753 54 58 58
1.70902 0.88 3.04 -0.996239 0.0219483 0.0838206 54 58 58
1.70702 0.8 3.04 -0.993532 0.0363486 0.107579 53 57 56
1.70622 0.72 3.04 -0.993923 0.109798 0.00783283 53 57 57
1.6848 0.64 3.04 -0.97078 0.239503 0.0150173 51 56 55
1.71011 1.28 2.96 -0.976318 0.0411562 0.212391 53 59 57
1.70483 1.2 2.96 -0.994873 -0.00390756 0.10106 53 59 57
1.71022 1.12 2.96 -0.996189 -0.0535834 -0.0688169 53 58 58
1.69785 0.96 2.96 -0.990092 0.0394038 0.134777 50 56 54
1.7007 0.88 2.96 -0.996962 -0.0322546 0.0708975 50 56 54
1.70223 0.8 2.96 -0.996586 -0.0217676 0.0796428 49 53 53
1.7085 0.72 2.96 -0.997013 0.0600895 0.0485148 50 54 53
1.69365 0.64 2.96 -0.991779 0.118907 -0.0472787 49 53 52
1.68496 1.28 2.88 -0.988247 -0.151358 0.0214005 51 55 54
1.70273 1.2 2.88 -0.987512 -0.15597 0.0221945 51 55 54
1.71699 1.12 2.88 -0.999953 -0.00442992 0.00858621 51 56 55
1.70793 1.04 2.96 -0.988985 0.128661 0.0731773 49 54 53
1.69769 1.04 2.88 -0.987867 0.1543 0.017592 49 54 53
1.68882 0.96 2.88 -0.999941 0.010601 -0.00219886 49 53 52
1.69843 0.88 2.88 -0.999858 -0.016408 0.00388226 48 52 52
1.68983 0.8 2.88 -0.999137 0.00595178 0.0411048 47 53 51
1.69698 0.72 2.88 -0.998684 -0.050907 -0.00629413 47 51 50
1.70274 0.64 2.88 -0.99174 -0.0714077 -0.10655 47 51 50
1.6944 1.28 2.8 -0.997714 -0.0577263 -0.0351337 49 54 54
1.69471 1.2 2.8 -0.993914 -0.108194 0.020734 49 54 54
1.71423 1.12 2.8 -0.996879 -0.0780002 -0.0122026 49 53 53
1.70789 1.04 2.8 -0.988602 0.134527 0.0675984 50 53 53
1.69574 0.96 2.8 -0.99945 -0.0264113 -0.0200448 48 52 52
1.7017 0.88 2.8 -0.999876 0.0157462 -8.70461e-05 47 52 51
1.69593 0.8 2.8 -0.999244 -0.000722225 0.038861 47 51 51
1.70459 0.72 2.8 -0.994547 -0.104284 -0.00109664 46 51 49
1.71019 0.64 2.8 -0.998597 -0.0529314 0.00142379 45 50 49
1.69936 1.28 2.72 -0.99851 0.0160227 -0.0521613 49 53 54
1.69755 1.2 2.72 -0.995609 -0.0887251 -0.0298364 49 53 54
1.71371 1.12 2.72 -0.998659 -0.0125155 0.0502323 49 53 53
1.70075 1.04 2.72 -0.993854 0.100217 0.0470186 48 52 52
1.69788 0.96 2.72 -0.994328 0.0287545 0.102392 48 52 51
1.69571 0.88 2.72 -0.991749 0.0915545 0.0897292 46 50 51
1.68059 0.8 2.72 -0.997467 -0.0229879 0.0673195 47 51 50
1.69959 0.72 2.72 -0.991048 -0.09961 0.0888907 46 50 50
1.69969 0.64 2.72 -0.992444 -0.0187832 0.121252 46 50 49
1.70382 1.28 2.64 -0.997654 0.0438801 -0.052545 50 54 53
1.69974 1.2 2.64 -0.99943 -0.0233703 -0.024346 50 54 53
1.70518 1.12 2.64 -0.99995 0.00813629 0.00577281 47 52 52
1.69981 1.04 2.64 -0.988503 0.150008 -0.0189436 48 52 52
1.68 0.981876 2.64 -0.970589 0.239348 0.0258886 54 59 59
1.67524 0.96 2.64 -0.995206 0.0923861 0.0320946 54 59 59
1.68 0.96 2.66124 -0.968229 0.0701316 0.24003 54 59 59
1.68 0.921084 2.64 -0.985248 -0.169806 0.0212852 52 58 58
1.68952 0.88 2.64 -0.998974 -0.032458 0.0315895 48 52 51
1.68495 0.8 2.64 -0.999827 -0.0179193 0.0050582 46 50 51
1.68772 0.72 2.64 -0.997382 -0.0493108 0.0528888 45 49 50
1.69348 0.64 2.64 -0.995686 -0.0927736 0.00128865 46 50 49
1.70893 1.28 2.56 -0.996717 0.0571136 -0.0573883 49 53 52
1.70385 1.2 2.56 -0.998294 -0.0087541 -0.0577266 49 53 52
1.71137 1.12 2.56 -0.996544 -0.0175421 -0.0811972 47 52 52
1.70733 1.04 2.56 -0.990142 0.104648 -0.0930995 48 52 52
1.68 0.96 2.61502 -0.976057 0.0601866 -0.209021 52 57 56
1.69435 0.96 2.56 -0.983183 0.0862195 -0.160988 49 53 52
1.68637 0.88 2.56 -0.997093 0.0696668 0.0308522 46 50 51
1.6845 0.8 2.56 -0.999878 -0.0151178 -0.00383182 47 51 50
1.69033 0.72 2.56 -0.99425 -0.0928953 -0.0532718 46 50 49
1.70291 0.64 2.56 -0.981227 -0.154304 -0.115689 45 49 48
-3.68 0.343304 0.72 0.841037 0.277079 0.464634 38 33 48
-3.68 0.4 0.68619 0.841037 0.277079 0.464634 38 33 48
-3.69868 0.4 0.72 0.841037 0.277079 0.464634 38 33 48
-3.76 1.1923 0.72 0.760835 0.573057 -0.304526 43 39 54
-3.76614 1.2 0.72 0.713794 0.569052 -0.408263 43 39 54
-3.76 1.2 0.730738 0.713794 0.569052 -0.408263 43 39 54
-3.68824 1.28 0.64 0.682712 -0.107057 0.722802 81 80 90
-3.76 1.28 0.707783 0.748632 -0.00754181 0.662943 81 80 90
-3.70078 1.2 0.64 0.75495 0.284481 0.590865 81 80 90
-3.76 1.2 0.715664 0.739132 0.330868 0.586694 81 80 90
-3.68 1.15545 0.64 0.739187 0.34429 0.57885 59 56 70
-3.68 1.13378 0.72 0.576723 0.788525 0.213586 59 56 70
1.69291 0.64 3.12 -0.958217 -0.285839 0.0107924 53 57 56
1.71132 0.56 3.2 -0.995427 -0.0683105 -0.0667715 53 57 56
1.68541 0.64 3.2 -0.947599 -0.306887 -0.0887436 53 57 56
1.71605 0.56 3.12 -0.992895 -0.117407 -0.0193696 53 57 56
1.60761 0.48 3.2 0.745207 -0.0661854 -0.66354 54 59 58
1.6 0.48 3.19143 0.750289 -0.0696079 -0.657436 54 59 58
1.64343 0.56 3.2 0.777231 -0.367161 -0.510985 54 59 58
1.6 0.56 3.13137 0.784216 -0.372536 -0.496207 54 59 58
1.69875 0.48 3.2 -0.985526 0.0533899 -0.160898 52 56 55
1.71458 0.48 3.12 -0.994858 0.0141185 -0.10029 52 56 55
1.6284 0.4 3.2 0.709542 0.136789 -0.691259 53 56 55
1.6 0.4 3.1707 0.712437 0.134845 -0.688658 53 56 55
1.69709 0.4 3.2 -0.981884 -0.0285972 -0.187315 50 54 53
1.71216 0.4 3.12 -0.995182 -0.0105369 -0.0974725 50 54 53
1.63981 0.32 3.2 0.718443 -0.0120761 -0.695481 52 55 54
1.6 0.32 3.16047 0.706348 -0.00413162 -0.707853 52 55 54
1.70379 0.32 3.2 -0.987583 0.00977007 -0.156793 50 52 51
1.71569 0.32 3.12 -0.993784 0.106976 0.0308044 50 52 51
1.61876 0.24 3.2 0.808189 -0.207176 -0.551279 51 55 54
1.6 0.24 3.1725 0.798252 -0.196136 -0.569495 51 55 54
1.69703 0.24 3.2 -0.999534 -0.00230582 -0.0304286 49 51 51
1.69633 0.24 3.12 -0.982826 0.0518363 0.177105 49 51 51
1.6 0.164958 3.2 0.809037 -0.202269 -0.551857 50 54 53
1.71044 0.16 3.2 -0.985494 0.122115 0.11785 48 52 51
1.69771 0.16 3.12 -0.998693 0.0262754 0.0438506 48 52 51
1.66889 0.08 3.2 0.391647 -0.139213 -0.909523 48 52 51
1.6 0.08 3.17033 0.380188 -0.275538 -0.882913 48 52 51
1.6 0.156356 3.2 0.372494 0.336077 -0.865044 48 52 51
1.68125 0.08 3.2 -0.986089 0.160795 -0.0421145 46 50 49
1.69967 0.08 3.12 -0.995584 0.0402344 -0.0848093 46 50 49
1.6 0.0427908 3.2 0.319097 -0.590794 -0.74104 48 52 51
1.6848 0.64 3.04 -0.94877 -0.31546 -0.017911 51 55 55
1.71263 0.56 3.04 -0.986804 -0.142731 0.0764592 51 55 55
1.71677 0.48 3.04 -0.998996 -0.0232839 0.0382614 49 53 53
1.71355 0.4 3.04 -0.986305 0.114223 0.11898 48 52 52
1.69584 0.32 3.04 -0.924557 0.292915 0.243711 46 50 49
1.68 0.281186 3.04 -0.781176 0.476374 0.403523 51 55 54
1.63989 0.24 3.04 -0.848322 -0.121425 0.51537 51 55 54
1.68 0.24 3.07616 -0.831875 -0.0439088 0.553223 51 55 54
1.68 0.205793 3.04 -0.790792 -0.529063 0.3078 51 55 54
1.69553 0.16 3.04 -0.978416 -0.188253 0.085225 45 50 49
1.70201 0.08 3.04 -0.999101 0.0421898 0.00412384 44 49 48
1.68356 -0 3.12 -0.982575 0.179868 -0.0468482 43 47 46
1.68879 -0 3.04 -0.988741 0.146854 -0.028719 43 47 46
1.69365 0.64 2.96 -0.993495 -0.108907 -0.0332798 48 52 51
1.69619 0.56 2.96 -0.99423 -0.0745836 0.0771037 48 52 51
1.71125 0.48 2.96 -0.994295 0.00494085 0.106548 47 51 51
1.69387 0.4 2.96 -0.978923 0.150099 0.138488 46 50 49
1.68 0.324487 2.96 -0.960066 0.277732 -0.0337263 52 55 54
1.67867 0.32 2.96 -0.955865 0.28422 -0.0744363 52 55 54
1.68 0.32 2.96455 -0.923517 0.278621 0.263602 52 55 54
1.65903 0.24 2.96 -0.946695 -0.179836 -0.267258 52 55 54
1.68 0.195705 2.96 -0.923447 -0.365743 -0.116093 50 54 53
1.69044 0.16 2.96 -0.98074 -0.194715 0.0153167 44 48 47
1.69879 0.08 2.96 -0.997093 0.0137164 0.0749536 43 47 47
1.69083 -0 2.96 -0.960762 0.204236 0.187682 42 46 44
1.60199 0.56 2.96 0.415553 0.0556459 -0.907865 54 60 59
1.6 0.56 2.95909 0.410308 0.167647 -0.896405 54 60 59
1.6 0.560691 2.96 0.266947 0.767211 -0.583203 54 60 59
1.70274 0.64 2.88 -0.99522 0.0687633 -0.0693455 46 50 49
1.69451 0.56 2.88 -0.999969 0.00654241 0.00432015 46 50 49
1.6 0.558996 2.96 0.32128 -0.635694 -0.701906 54 59 58
1.70098 0.48 2.88 -0.996702 0.0629691 0.0511917 45 49 48
1.68 0.402135 2.88 -0.955298 0.294758 0.0228682 53 57 56
1.67934 0.4 2.88 -0.999319 0.016426 0.0330453 53 57 56
1.68 0.4 2.88287 -0.974809 0.00823346 0.222888 53 57 56
1.68 0.32 2.95643 -0.90628 0.260747 -0.332666 51 55 54
1.68 0.397733 2.88 -0.960201 -0.278539 0.0207377 51 55 54
1.70119 0.32 2.88 -0.996358 0.0689396 -0.0501849 44 48 47
1.68 0.24 2.89407 -0.954613 -0.0718275 -0.28906 51 54 53
1.68427 0.24 2.88 -0.999725 0.011474 -0.0204375 44 48 47
1.68407 0.16 2.88 -0.996588 -0.0190431 0.0803103 42 47 46
1.68732 0.08 2.88 -0.964748 0.206961 0.162569 40 45 44
1.68 0.0574682 2.88 -0.941249 0.283037 0.18423 49 53 52
1.66662 -0 2.88 -0.96532 0.202174 0.165174 49 53 52
1.68 -0 2.93228 -0.90998 0.276521 0.308987 49 53 52
1.71019 0.64 2.8 -0.987315 0.154647 0.035973 45 49 49
1.6962 0.56 2.8 -0.998083 0.0551664 0.0280362 45 49 49
1.69823 0.48 2.8 -0.999734 -0.0158708 -0.0167426 45 49 48
1.68 0.4 2.87663 -0.981394 0.00350619 -0.191974 53 57 57
1.69584 0.4 2.8 -0.997679 0.0552476 -0.0398104 45 49 48
1.6892 0.32 2.8 -0.975347 0.218089 0.0336963 43 48 47
1.68 0.290682 2.8 -0.967355 0.251879 0.0279348 51 55 54
1.67114 0.24 2.8 -0.997653 0.0627249 0.0274458 51 55 54
1.68 0.24 2.86471 -0.968485 0.0555049 0.242808 51 55 54
1.68 0.16 2.80062 -0.998125 -0.0525253 0.0314382 49 53 52
1.67998 0.16 2.8 -0.999518 -0.0294743 0.00978783 49 53 52
1.68 0.08 2.81873 -0.988174 0.105709 0.111078 48 53 52
1.67781 0.08 2.8 -0.995291 0.0800087 -0.0547238 48 53 52
1.67072 -0 2.8 -0.993457 0.0879693 -0.0728264 47 52 52
1.69969 0.64 2.72 -0.991049 0.106085 0.0810359 45 49 48
1.69293 0.56 2.72 -0.998561 -0.0465575 -0.0266014 45 49 48
1.70663 0.48 2.72 -0.999922 -0.00276608 -0.0121896 44 48 48
1.69549 0.4 2.72 -0.997867 0.0372559 -0.0535983 45 49 48
1.69789 0.32 2.72 -0.989081 0.114675 -0.0925638 44 48 46
1.68 0.241455 2.72 -0.973521 0.214206 -0.0798286 48 52 52
1.67968 0.24 2.72 -0.979891 0.18297 -0.0795957 48 52 52
1.68 0.16 2.79922 -0.999643 0.00823752 -0.0254162 48 52 52
1.68 0.229992 2.72 -0.996554 -0.0340818 -0.075614 48 52 52
1.68349 0.16 2.72 -0.994466 -0.0798864 -0.0682355 41 46 45
1.68 0.08 2.78658 -0.983356 0.0762677 -0.164908 47 50 50
1.69258 0.08 2.72 -0.990108 0.0517506 -0.130413 41 45 44
1.68 0.0108494 2.72 -0.971858 0.147591 -0.183598 46 50 50
1.67836 -0 2.72 -0.971453 0.146511 -0.186583 46 50 50
1.69348 0.64 2.64 -0.996521 -0.052025 -0.065113 44 48 47
1.70135 0.56 2.64 -0.999006 -0.0359497 -0.0263545 44 48 47
1.69822 0.48 2.64 -0.999739 -0.0211969 -0.00847583 44 47 47
1.70723 0.4 2.64 -0.998495 -0.00404542 -0.054691 45 48 47
1.69874 0.32 2.64 -0.993258 0.109525 -0.0379954 43 47 46
1.68 0.24 2.71599 -0.992675 0.0906975 -0.0798116 46 50 50
1.6869 0.24 2.64 -0.992068 0.0463531 -0.116846 43 47 46
1.6911 0.16 2.64 -0.995794 -0.0477647 -0.07818 41 46 45
1.69677 0.08 2.64 -0.99997 0.00361194 0.00691975 40 44 43
1.68 -0 2.71157 -0.971233 0.146096 -0.188051 44 48 47
1.69321 -0 2.64 -0.99768 0.0581078 -0.0354847 39 44 42
1.70291 0.64 2.56 -0.999012 -0.0201154 -0.0396182 45 49 48
1.69833 0.56 2.56 -0.999859 0.0158554 0.00545839 45 49 48
1.70558 0.48 2.56 -0.995743 -0.0698352 -0.0601493 44 48 48
1.7046 0.4 2.56 -0.99966 0.026085 -0.000172867 43 47 46
1.70669 0.32 2.56 -0.992035 0.0377106 -0.120183 42 47 46
1.70189 0.24 2.56 -0.988271 0.0418411 -0.146867 43 47 46
1.69386 0.16 2.56 -0.998839 0.0481675 -0.000711997 41 45 44
1.68875 0.08 2.56 -0.996378 0.0326093 0.078533 41 45 44
1.69199 -0 2.56 -0.999063 -0.0405438 0.0151671 40 45 44
-1.8814 0.48 2.4 0.746844 -0.459346 0.480859 101 96 90
-1.84 0.48 2.34711 0.624323 -0.521413 0.581678 101 96 90
-1.84 0.557113 2.4 0.725321 -0.38937 0.567715 101 96 90
-1.89385 0.4 2.32 0.894533 -0.437988 0.0893161 51 50 49
-1.84 0.447885 2.32 0.621568 -0.675624 0.396466 51 50 49
-1.91353 0.4 2.4 0.904655 -0.363413 0.222555 51 50 49
-1.84 0.56895 2.24 0.456979 0.835987 -0.303801 80 69 53
-1.92 0.635697 2.32 0.389652 0.86047 -0.328273 80 69 53
-1.84 0.609474 2.32 0.28065 0.856221 -0.433729 80 69 53
-1.92 0.614825 2.24 0.312783 0.732748 -0.604357 80 69 53
-1.90521 0.4 2.24 0.983254 -0.101278 -0.151508 47 47 45
-1.84 0.46755 2.24 0.911816 -0.367736 -0.18265 47 47 45
-1.88188 0.32 2.32 0.977155 0.190198 -0.0948345 49 49 48
-1.88611 0.32 2.24 0.971406 0.231933 -0.0507611 49 49 48
-1.84 0.56 2.21493 0.465064 0.669757 -0.578913 65 59 47
-1.92 0.56 2.18383 0.370864 0.403212 -0.836588 65 59 47
-1.84 0.48 2.21534 0.862838 -0.36517 -0.349517 50 46 39
-1.92 0.48 2.16999 0.492703 0.0432975 -0.86912 50 46 39
-1.92 0.4 2.17562 0.903257 0.255721 -0.344578 46 44 43
-1.83554 0.48 2.24 0.927981 -0.332637 -0.167943 50 49 49
-1.92 0.394572 2.16 0.857776 0.449263 -0.249766 51 51 50
-1.89029 0.32 2.16 0.882883 0.318121 -0.345423 51 51 50
-1.92 0.48 2.15447 0.904313 0.0343103 0.425489 76 68 56
-1.88496 0.48 2.08 0.947452 0.0404648 0.317329 76 68 56
-1.92 0.523049 2.08 0.6946 0.56533 0.444896 76 68 56
-1.92 0.428548 2.08 0.789707 -0.539971 0.291194 48 45 40
-1.92 0.32 2.11163 0.80693 0.321435 -0.495523 48 47 44
-1.92 0.56 2.0408 0.740871 0.527932 0.415208 116 98 71
-1.90022 0.56 2 0.919856 0.269006 0.285484 116 98 71
-1.89455 0.48 2 0.987745 -0.090804 0.12694 116 98 71
-1.92 0.4 2.01106 0.941058 -0.142602 0.306715 103 88 64
-1.91643 0.4 2 0.949273 -0.120839 0.290308 103 88 64
-1.90812 0.32 2 0.971328 0.0168508 0.237146 49 46 43
-1.92 0.32 2.02851 0.919827 0.0836003 0.383313 49 46 43
-1.86849 0.56 1.92 0.923539 0.0751907 0.376062 124 109 87
-1.86124 0.48 1.92 0.927223 -0.0914252 0.363178 124 109 87
-1.89175 0.4 1.92 0.956424 -0.210613 0.202223 121 106 86
-1.91224 0.32 1.92 0.867926 -0.386408 -0.312081 57 53 49
-1.92 0.307091 1.92 0.77527 -0.466083 -0.42629 47 46 44
-1.92 0.24 1.99335 0.606406 -0.568546 -0.555902 47 46 44
-1.91387 0.24 2 0.654467 -0.541271 -0.527919 47 46 44
1.65926 -0 0.56 -0.990598 0.0941198 -0.0992864 33 37 36
1.63726 -0.08 0.64 -0.971371 0.15998 -0.175627 33 37 36
1.64221 -0 0.64 -0.976238 0.0603602 -0.208124 33 37 36
1.65083 -0.08 0.56 -0.977997 0.0526073 -0.201879 33 37 36
1.61735 -0.16 0.64 -0.939842 0.0657265 -0.335227 34 37 36
1.65111 -0.16 0.56 -0.9573 0.0690124 -0.280739 34 37 36
1.61635 -0.24 0.64 -0.958292 0.0100855 -0.285614 32 36 35
1.63687 -0.24 0.56 -0.961566 -0.0307058 -0.272851 32 36 35
1.62174 -0.32 0.64 -0.907295 -0.196365 -0.371829 34 37 36
1.6597 -0.32 0.56 -0.946904 -0.187397 -0.261258 34 37 36
1.64383 -0.4 0.64 -0.930028 -0.138541 -0.340374 27 29 28
1.67015 -0.4 0.56 -0.989825 -0.00653237 -0.142141 27 29 28
1.65129 -0.48 0.64 -0.757796 0.640604 -0.123984 21 23 22
1.65839 -0.48 0.56 -0.810441 0.579563 -0.0853922 21 23 22
1.36 -0.529714 0.56 0.0171295 0.999845 0.00408654 44 45 44
1.28 -0.528626 0.64 0.0436186 0.998597 0.0300389 44 45 44
1.36 -0.532284 0.64 0.0190741 0.99918 0.0357237 44 45 44
1.28 -0.526383 0.56 0.0422916 0.999085 0.00643396 44 45 44
1.44 -0.528534 0.56 -0.0062867 0.999976 0.00307857 43 45 44
1.44 -0.532261 0.64 -0.0240489 0.999495 0.020768 43 45 44
1.52 -0.528838 0.56 -0.0871518 0.995789 -0.0284384 44 45 43
1.52 -0.524252 0.64 -0.15162 0.985157 -0.080482 44 45 43
1.6 -0.516059 0.56 -0.367352 0.9262 -0.0848904 37 38 35
1.6 -0.503315 0.64 -0.374145 0.921285 -0.106068 37 38 35
1.6604 -0 0.48 -0.997871 -0.0624057 0.0189542 33 37 36
1.67001 -0.08 0.48 -0.999288 -0.0373203 0.00545559 33 37 36
1.66786 -0.16 0.48 -0.880776 -0.147499 -0.449975 33 36 35
1.6586 -0.24 0.48 -0.772628 -0.0316527 -0.63407 33 36 35
1.66798 -0.32 0.48 -0.93885 -0.0276048 -0.343218 34 36 35
1.67082 -0.4 0.48 -0.980573 0.0796905 -0.179235 17 19 17
1.66742 -0.48 0.48 -0.856062 0.515103 -0.04275 22 23 23
1.36 -0.531038 0.48 0.0257934 0.998952 -0.0378055 48 50 49
1.28 -0.527484 0.48 0.045546 0.99828 -0.0369011 48 50 49
1.44 -0.531898 0.48 -0.00635423 0.999029 -0.0435865 43 45 44
1.52 -0.530523 0.48 -0.0659203 0.996686 -0.047655 46 46 44
1.6 -0.519415 0.48 -0.346618 0.936105 -0.0596967 37 38 36
1.64694 -0 0.4 -0.981011 -0.0397941 0.189827 34 37 36
1.64814 -0.08 0.4 -0.958017 -0.170366 0.230605 34 37 36
1.68 -0.16 0.463394 -0.760876 -0.309839 -0.570147 33 37 36
1.68 -0.125704 0.4 -0.741109 -0.538053 0.401567 33 37 36
1.68 -0.24 0.461305 -0.676053 -0.0230381 -0.736492 34 38 37
1.68 -0.32 0.45319 -0.916478 0.00746817 -0.400016 35 39 38
1.68 -0.4 0.447317 -0.949773 0.156887 -0.270773 19 20 19
1.68 -0.444302 0.4 -0.929924 0.279415 0.2391 24 25 25
1.66705 -0.48 0.4 -0.849478 0.494423 0.184208 24 25 25
1.36 -0.536055 0.4 0.0278355 0.999521 -0.0134935 52 54 52
1.28 -0.532117 0.4 0.04585 0.998889 -0.0108923 52 54 52
1.44 -0.536018 0.4 -0.00417397 0.999671 -0.0253014 46 48 47
1.52 -0.534672 0.4 -0.053536 0.998316 -0.0223558 43 44 42
1.6 -0.52918 0.4 -0.396935 0.917158 0.0355516 37 39 36
1.63364 -0 0.32 -0.980211 0.00995039 0.197704 37 43 41
1.63216 -0.08 0.32 -0.97431 0.0261364 0.223691 37 43 41
1.68 -0.16 0.385386 -0.699858 -0.256667 0.666574 37 41 40
1.63038 -0.16 0.32 -0.935042 -0.0672252 0.348106 37 41 40
1.68 -0.24 0.380012 -0.777422 0.0282639 0.628344 38 42 41
1.63045 -0.24 0.32 -0.938004 -0.0136216 0.346355 38 42 41
1.68 -0.32 0.389949 -0.810591 0.0274906 0.584968 38 41 40
1.63173 -0.32 0.32 -0.934189 0.0252171 0.355886 38 41 40
1.68 -0.4 0.393035 -0.824077 0.0633883 0.562919 24 26 25
1.63023 -0.4 0.32 -0.907282 0.0846369 0.411917 24 26 25
1.62077 -0.48 0.32 -0.901571 0.330026 0.279736 25 26 26
1.36 -0.53265 0.32 0.0342864 0.999366 0.00958782 55 57 56
1.28 -0.529775 0.32 0.0304555 0.999533 -0.00233647 55 57 56
1.44 -0.535239 0.32 0.0139788 0.999888 0.00540265 55 57 55
1.52 -0.535856 0.32 -0.0763834 0.997077 -0.00202475 51 53 50
1.6 -0.523319 0.32 -0.707758 0.688177 0.159657 45 47 45
1.616 -0 0.24 -0.938893 0.0561922 0.339591 49 54 50
1.61022 -0.08 0.24 -0.939007 0.00336447 0.343881 49 54 50
1.61945 -0.16 0.24 -0.92151 -0.0876275 0.378339 48 53 49
1.6301 -0.24 0.24 -0.947847 -0.0129539 0.318463 49 53 49
1.61697 -0.32 0.24 -0.924618 0.128799 0.358458 47 52 48
1.60531 -0.4 0.24 -0.925072 0.13102 0.356476 40 42 39
1.6 -0.437642 0.24 -0.918099 0.147089 0.368046 27 28 28
1.59092 -0.48 0.24 -0.803549 0.337399 0.490377 27 28 28
1.6 -0.48 0.253661 -0.813169 0.309118 0.493156 27 28 28
1.36 -0.534493 0.24 0.0163211 0.999732 -0.0164348 45 46 45
1.28 -0.53337 0.24 0.0128389 0.999484 -0.0294277 45 46 45
1.44 -0.536121 0.24 0.00998254 0.999933 0.00587201 44 45 43
1.52 -0.535494 0.24 -0.123925 0.987505 0.0973429 45 50 45
1.6 -0 0.202203 -0.939215 0.0530038 0.339214 38 42 41
1.58746 -0 0.16 -0.973354 0.0365336 0.22638 38 42 41
1.6 -0.08 0.214703 -0.939681 0.00030319 0.342053 38 42 41
1.58503 -0.08 0.16 -0.97363 0.00948115 0.227936 38 42 41
1.6 -0.16 0.201277 -0.918776 -0.0550361 0.390925 40 45 42
1.58442 -0.16 0.16 -0.953638 -0.00830928 0.300841 40 45 42
1.6 -0.24 0.189246 -0.877693 0.0261187 0.47851 39 43 42
1.5841 -0.24 0.16 -0.926166 0.0248631 0.376296 39 43 42
1.6 -0.32 0.204662 -0.910737 0.0953921 0.40182 34 37 35
1.58395 -0.32 0.16 -0.961865 0.0279478 0.272092 34 37 35
1.6 -0.4 0.226456 -0.929899 0.122007 0.34699 28 30 29
1.5827 -0.4 0.16 -0.966171 0.0923449 0.240802 28 30 29
1.56754 -0.48 0.16 -0.869881 0.475233 0.13214 27 28 27
1.36 -0.53542 0.16 0.00418902 0.999941 -0.00999452 70 72 64
1.28 -0.53468 0.16 0.00557423 0.999909 -0.0122733 70 72 64
1.44 -0.534744 0.16 -0.0411017 0.999139 0.00567075 68 69 63
1.52 -0.530464 0.16 -0.435043 0.898782 0.0541254 66 68 62
1.57654 -0 0.08 -0.996258 0.0500817 -0.0704467 57 63 59
1.57197 -0.08 0.08 -0.995891 0.0340074 -0.0839352 57 63 59
1.56974 -0.16 0.08 -0.997026 0.00311185 -0.0770077 55 61 56
1.57218 -0.24 0.08 -0.998001 0.0138809 -0.0616551 57 62 57
1.5677 -0.32 0.08 -0.998537 0.0458995 -0.0285841 56 60 54
1.56445 -0.4 0.08 -0.996986 0.0299452 -0.0715631 69 71 65
1.56544 -0.48 0.08 -0.896745 0.423829 -0.127348 42 43 39
1.36 -0.535486 0.08 0.00601087 0.999948 -0.0082152 81 82 75
1.28 -0.535922 0.08 0.000335307 0.999954 -0.00959175 81 82 75
1.44 -0.536853 0.08 -0.0731854 0.997227 -0.0135136 77 80 71
1.52 -0.523653 0.08 -0.439983 0.897855 -0.0164784 77 79 72
1.6 -0.08 0.00545813 -0.403034 0.0527247 -0.913665 118 96 61
1.6 -0 0.00223154 -0.383519 -0.11864 -0.915881 118 96 61
1.60649 -0 -0 -0.322161 -0.131366 -0.937526 130 98 56
1.63912 -0.08 -0 -0.141079 0.0434773 -0.989043 130 98 56
1.6 -0.126798 -0 -0.367912 0.10772 -0.9236 113 91 54
1.59784 -0.16 -0 -0.941364 0.0248363 -0.336478 113 91 54
1.59479 -0.24 -0 -0.961707 0.0469855 -0.270024 110 87 51
1.58973 -0.32 -0 -0.958007 0.0282859 -0.285345 97 79 51
1.59345 -0.4 -0 -0.941371 -0.0229784 -0.336589 94 78 51
1.59295 -0.48 -0 -0.88011 0.399437 -0.256625 87 69 41
1.36 -0.536704 -0 0.00501219 0.999943 -0.00944985 87 89 83
1.28 -0.53529 -0 0.0176754 0.999813 0.00789241 87 89 83
1.44 -0.537017 -0 -0.0657151 0.997824 -0.00536618 79 82 75
1.52 -0.525515 -0 -0.341897 0.939594 -0.016394 74 76 68
1.70502 1.28 2.48 -0.999629 0.0140592 0.0233165 48 53 53
1.70385 1.2 2.56 -0.999503 -0.0315207 -0.000563761 48 53 53
1.70893 1.28 2.56 -0.996805 0.0633147 0.0486856 48 53 53
1.70521 1.2 2.48 -0.998809 0.0198408 0.0445771 48 53 53
1.71137 1.12 2.56 -0.994077 0.0194067 0.106935 48 52 52
1.69939 1.12 2.48 -0.996877 0.0267074 0.0743158 48 52 52
1.70733 1.04 2.56 -0.991065 0.0883778 0.0999002 48 52 52
1.7006 1.04 2.48 -0.999479 0.0292784 0.0135623 48 52 52
1.69435 0.96 2.56 -0.994589 0.103777 0.00474105 49 53 52
1.69604 0.96 2.48 -0.993989 0.109386 0.00459964 49 53 52
1.68637 0.88 2.56 -0.996774 0.0763752 0.0246675 47 51 52
1.68318 0.88 2.48 -0.998286 0.0580926 -0.0071136 47 51 52
1.6845 0.8 2.56 -0.999262 -0.0383971 -0.00133735 46 50 50
1.6857 0.8 2.48 -0.999834 -0.00670437 -0.0169648 46 50 50
1.69033 0.72 2.56 -0.993931 -0.0852572 0.0695175 45 49 49
1.68242 0.72 2.48 -0.996462 -0.0838355 0.00590408 45 49 49
1.70291 0.64 2.56 -0.980401 -0.185921 0.0651686 45 49 49
1.70012 0.64 2.48 -0.983249 -0.18185 0.0123621 45 49 49
1.70256 1.28 2.4 -0.998912 0.0317093 -0.0342068 49 53 53
1.6991 1.2 2.4 -0.998648 0.023911 -0.0461479 49 53 53
1.69958 1.12 2.4 -0.99784 -0.0172236 -0.0633986 49 53 53
1.70379 1.04 2.4 -0.998416 0.0351138 -0.0439523 48 52 53
1.69331 0.96 2.4 -0.99364 0.0963882 -0.0582092 47 52 53
1.68833 0.88 2.4 -0.995009 0.0261974 -0.0962826 47 51 52
1.68903 0.8 2.4 -0.996396 0.00297995 -0.0847716 44 48 48
1.68894 0.72 2.4 -0.993379 -0.0621179 -0.096644 44 48 49
1.69535 0.64 2.4 -0.998195 -0.0545803 -0.0250366 45 50 50
1.71243 1.28 2.32 -0.985427 0.0151166 -0.169429 49 53 53
1.71195 1.2 2.32 -0.991759 0.0389655 -0.122048 49 53 53
1.70768 1.12 2.32 -0.996385 0.0158691 -0.083455 49 53 53
1.70817 1.04 2.32 -0.995371 0.0209588 -0.0937967 47 51 51
1.70548 0.96 2.32 -0.988246 0.0512037 -0.144043 48 52 51
1.69874 0.88 2.32 -0.988993 0.0414001 -0.142049 46 50 51
1.69825 0.8 2.32 -0.989853 -0.0125479 -0.141543 45 49 49
1.70178 0.72 2.32 -0.991569 -0.0180352 -0.128318 44 49 49
1.70007 0.64 2.32 -0.996208 0.02268 -0.083991 46 50 49
1.72861 1.28 2.24 -0.982986 0.105886 -0.150088 49 53 53
1.71732 1.2 2.24 -0.987702 0.0862912 -0.130377 49 53 53
1.71421 1.12 2.24 -0.989049 0.00144805 -0.147579 49 53 52
1.71768 1.04 2.24 -0.986934 -0.015485 -0.160377 48 52 52
1.71777 0.96 2.24 -0.986098 0.0408006 -0.161077 47 51 52
1.71183 0.88 2.24 -0.985571 0.0400835 -0.164448 47 51 51
1.71091 0.8 2.24 -0.987391 0.000804354 -0.158297 45 49 49
1.7108 0.72 2.24 -0.991073 0.0163484 -0.132317 44 48 49
1.70863 0.64 2.24 -0.991309 0.0248984 -0.12918 45 49 49
1.74231 1.28 2.16 -0.964462 0.111382 -0.239597 50 54 54
1.73364 1.2 2.16 -0.966853 0.0784773 -0.242975 50 54 54
1.73116 1.12 2.16 -0.97858 0.000720406 -0.205867 48 52 52
1.73314 1.04 2.16 -0.981516 1.6721e-05 -0.19138 47 51 52
1.7308 0.96 2.16 -0.981723 0.0449138 -0.184939 46 51 51
1.72578 0.88 2.16 -0.974994 0.0261331 -0.22069 47 51 51
1.72482 0.8 2.16 -0.973287 0.0148154 -0.229115 46 49 50
1.72279 0.72 2.16 -0.973342 0.0200743 -0.228479 44 48 49
1.7213 0.64 2.16 -0.975942 0.0395711 -0.21441 45 49 48
1.76 1.2 2.08165 -0.938452 0.137806 -0.31673 50 53 55
1.76 1.28 2.10007 -0.950453 0.090387 -0.297437 50 53 55
1.76 1.19637 2.08 -0.940657 0.14471 -0.306959 47 51 52
1.74825 1.12 2.08 -0.980462 0.0538327 -0.189199 47 51 52
1.74925 1.04 2.08 -0.971766 -0.0202425 -0.235075 48 52 51
1.74799 0.96 2.08 -0.922568 -0.0288063 -0.384758 47 51 51
1.75017 0.88 2.08 -0.930678 -0.000618216 -0.365838 48 52 51
1.74948 0.8 2.08 -0.952378 0.0162311 -0.304488 46 50 50
1.74919 0.72 2.08 -0.967463 0.0571181 -0.246481 45 49 48
1.74027 0.64 2.08 -0.966792 0.0949902 -0.237257 44 48 47
1.76 1.1205 2 -0.973769 0.218163 -0.0646381 50 56 56
1.75989 1.12 2 -0.994317 0.0834728 -0.0660747 50 56 56
1.76 1.04 2.04198 -0.956365 -0.0648611 -0.284882 49 54 54
1.76 1.11918 2 -0.988478 -0.13597 -0.0665059 49 54 54
1.76 0.96 2.05591 -0.895242 -0.0495072 -0.442821 48 53 53
1.76 0.88 2.05641 -0.925086 0.00459173 -0.379728 49 53 52
1.76 0.8 2.04671 -0.956354 0.0239378 -0.291228 47 51 51
1.76 0.72 2.02948 -0.97303 0.0713259 -0.219376 46 51 50
1.76 0.64 2.00832 -0.96177 0.0700172 -0.264755 46 50 49
1.76 1.12 1.99826 -0.99787 0.0102821 -0.0644249 54 60 60
1.75867 0.88 1.92 -0.974031 -0.075282 0.213532 51 55 54
1.76 0.86275 1.92 -0.974031 -0.075282 0.213532 51 55 54
1.76 0.88 1.92608 -0.974031 -0.075282 0.213532 51 55 54
1.70012 0.64 2.48 -0.999284 0.0170731 0.0337704 44 48 48
1.69833 0.56 2.56 -0.999539 -0.0298895 -0.00535614 44 48 48
1.70291 0.64 2.56 -0.99776 0.0571622 0.034755 44 48 48
1.69983 0.56 2.48 -0.998718 -0.0501934 0.00662562 44 48 48
1.70558 0.48 2.56 -0.998879 -0.0407635 -0.024081 44 47 48
1.70765 0.48 2.48 -0.998728 -0.04353 0.0254383 44 47 48
1.7046 0.4 2.56 -0.998773 -0.0141202 -0.0474731 44 47 47
1.70898 0.4 2.48 -0.999688 -0.0152726 -0.019763 44 47 47
1.70669 0.32 2.56 -0.999441 0.0324712 -0.00794306 43 47 46
1.70607 0.32 2.48 -0.998061 0.0621723 0.00303257 43 47 46
1.70189 0.24 2.56 -0.995911 0.086236 0.026938 41 45 45
1.69921 0.24 2.48 -0.996557 0.0817588 0.0137411 41 45 45
1.69386 0.16 2.56 -0.997161 0.0744682 0.0111705 41 45 44
1.69355 0.16 2.48 -0.998491 0.0538043 0.011025 41 45 44
1.68875 0.08 2.56 -0.999471 -0.00049536 -0.0325178 41 45 44
1.69232 0.08 2.48 -0.999914 -0.000438655 0.0130989 41 45 44
1.69199 -0 2.56 -0.998963 -0.0301022 -0.0341452 38 43 43
1.69389 -0 2.48 -0.997063 0.0248379 0.0724418 38 43 43
1.69535 0.64 2.4 -0.99972 -0.0221552 -0.00829647 45 48 48
1.69781 0.56 2.4 -0.999499 -0.0262222 0.0177437 45 48 48
1.6993 0.48 2.4 -0.996926 -0.0707039 0.03375 44 48 48
1.71179 0.4 2.4 -0.999272 -0.0366026 0.0107258 43 47 46
1.70599 0.32 2.4 -0.997411 0.0712904 0.00941373 42 46 46
1.69908 0.24 2.4 -0.996145 0.0872381 -0.0091781 42 46 45
1.69036 0.16 2.4 -0.997495 0.070051 -0.00987409 40 44 43
1.68637 0.08 2.4 -0.994947 0.0947825 0.0331285 39 44 43
1.68 0.0369373 2.4 -0.985307 0.135693 0.103718 40 45 45
1.67524 -0 2.4 -0.973848 0.125513 0.189387 40 45 45
1.68 -0 2.41878 -0.962064 0.125468 0.242261 40 45 45
1.70007 0.64 2.32 -0.99764 0.018851 -0.0660159 44 48 48
1.69723 0.56 2.32 -0.99736 -0.00344549 -0.0725332 44 48 48
1.69971 0.48 2.32 -0.997103 -0.0579156 -0.0493181 44 48 47
1.70661 0.4 2.32 -0.999758 -0.0217292 0.00332532 43 46 45
1.70583 0.32 2.32 -0.999139 0.0274483 -0.031101 42 47 46
1.7023 0.24 2.32 -0.994621 0.0505473 -0.0904076 41 45 44
1.69661 0.16 2.32 -0.993685 0.0859714 -0.0721096 41 45 44
1.6899 0.08 2.32 -0.992142 0.118166 -0.0411152 39 44 43
1.68 0.0147309 2.32 -0.99416 0.102169 -0.0347356 40 45 44
1.67863 -0 2.32 -0.995119 0.0934268 -0.031761 40 45 44
1.70863 0.64 2.24 -0.989228 -0.00929823 -0.146086 44 48 47
1.71057 0.56 2.24 -0.989889 0.00344227 -0.141799 44 48 47
1.70715 0.48 2.24 -0.996211 0.00906279 -0.0864968 43 47 47
1.70863 0.4 2.24 -0.997633 -0.0203552 -0.0656788 43 47 46
1.7109 0.32 2.24 -0.99609 -0.024114 -0.0849853 42 46 45
1.71481 0.24 2.24 -0.99436 0.101965 -0.0291918 41 45 44
1.70052 0.16 2.24 -0.990914 0.128286 -0.0403965 40 44 43
1.69146 0.08 2.24 -0.992841 0.102898 -0.0606582 39 44 43
1.68 -0 2.27979 -0.988048 0.144736 -0.0530265 39 44 43
1.68291 -0 2.24 -0.989277 0.110793 -0.0951592 38 42 42
1.7213 0.64 2.16 -0.982373 -0.00427533 -0.186884 44 48 48
1.72111 0.56 2.16 -0.981538 0.0337382 -0.188266 44 48 48
1.71407 0.48 2.16 -0.988328 0.0384624 -0.147407 43 47 46
1.71669 0.4 2.16 -0.984602 -0.0328257 -0.171703 42 46 45
1.71717 0.32 2.16 -0.98719 0.0146954 -0.158872 43 47 46
1.71203 0.24 2.16 -0.989282 0.0874023 -0.116974 40 44 43
1.70567 0.16 2.16 -0.975955 0.0569848 -0.210393 41 45 44
1.70076 0.08 2.16 -0.970287 0.0603204 -0.234316 39 44 42
1.69893 -0 2.16 -0.969392 0.0377274 -0.242601 39 43 42
1.74027 0.64 2.08 -0.9658 -0.0276562 -0.257807 45 49 48
1.74331 0.56 2.08 -0.9704 0.0619136 -0.233433 45 49 48
1.72923 0.48 2.08 -0.962998 0.0135745 -0.269167 43 47 46
1.73929 0.4 2.08 -0.949132 -0.0529836 -0.310388 42 46 45
1.73949 0.32 2.08 -0.94356 0.0336012 -0.329492 42 46 45
1.73184 0.24 2.08 -0.956058 0.0975639 -0.276467 42 46 45
1.7394 0.16 2.08 -0.996252 0.015784 -0.0850408 39 43 42
1.72766 0.08 2.08 -0.979016 0.0614135 -0.194311 40 44 43
1.72036 -0 2.08 -0.975788 0.141084 -0.167134 40 44 43
1.76 0.56 2.00072 -0.967519 0.0486823 -0.248068 46 50 50
1.76 0.64 2.00832 -0.971502 -0.00951459 -0.23684 46 50 50
1.76 0.48 2.00306 -0.930246 -0.052427 -0.363171 44 48 47
1.76 0.4 2.02148 -0.938784 -0.04635 -0.341375 45 50 49
1.76 0.32 2.03032 -0.922606 0.0219923 -0.385117 44 49 47
1.76 0.24 2.0157 -0.881875 0.365789 -0.29748 43 46 46
1.76 0.231457 2 -0.869428 0.433981 -0.236127 42 46 45
1.72433 0.16 2 -0.995419 0.0844365 -0.0448532 42 46 45
1.74229 0.08 2 -0.991191 -0.0171383 -0.131325 41 47 46
1.71829 -0 2 -0.957508 0.287339 0.0248078 42 46 45
1.76 0.625671 1.92 -0.997472 0.0543089 0.0458331 49 53 53
1.75642 0.56 1.92 -0.997472 0.0543089 0.045833 49 53 53
1.76 0.56 1.99782 -0.997472 0.0543089 0.0458331 49 53 53
1.76 0.353262 1.92 -0.895355 0.374059 0.241699 49 52 51
1.7461 0.32 1.92 -0.924809 0.284278 0.252813 49 52 51
1.76 0.32 1.97148 -0.946915 0.194965 0.255617 49 52 51
1.76 0.24 1.98645 -0.958589 0.06401 0.277508 47 51 50
1.74003 0.24 1.92 -0.955172 0.0725152 0.287032 47 51 50
-2.56 2.20103 1.92 0.683848 0.560976 0.466538 103 102 102
-2.56 2.24 1.87315 0.683848 0.560976 0.466538 103 102 102
-2.59196 2.24 1.92 0.683848 0.560976 0.466538 103 102 102
1.68 -0.08 -0.00311767 -0.141832 -0.0364436 -0.98922 119 88 42
1.63912 -0.08 -0 -0.0880267 -0.0180913 -0.995954 119 88 42
1.68 -0 -0.0115389 -0.186337 -0.0778565 -0.979396 119 88 42
1.60649 -0 -0 -0.154771 -0.06311 -0.985933 119 88 42
1.76 -0.08 -0.0262784 -0.665713 -0.026808 -0.745726 120 90 47
1.76 -0 -0.0309386 -0.642358 -0.0221886 -0.766084 120 90 47
1.79259 -0 -0.08 -0.824962 0.0227763 -0.564728 120 97 60
1.79039 -0.08 -0.08 -0.842728 0.0126736 -0.53819 120 97 60
1.6 -0.16 -0.00208003 -0.679732 0.0401697 -0.73236 124 95 56
1.59784 -0.16 -0 -0.693329 0.0396017 -0.719532 124 95 56
1.6 -0.126798 -0 -0.201789 0.0613988 -0.977503 124 95 56
1.68 -0.16 -0.00707698 -0.145154 0.0463493 -0.988323 117 85 43
1.76 -0.16 -0.0249465 -0.668269 0.0359308 -0.743052 111 88 53
1.78817 -0.16 -0.08 -0.844998 0.0266355 -0.534106 120 98 62
1.6 -0.24 -0.00515777 -0.660994 0.036641 -0.749496 119 91 52
1.59479 -0.24 -0 -0.703071 0.0358803 -0.710214 119 91 52
1.68 -0.24 -0.00967455 -0.165976 0.0240528 -0.985837 111 82 42
1.76 -0.24 -0.0315463 -0.714481 0.0513373 -0.697769 114 86 47
1.78289 -0.24 -0.08 -0.845138 0.0428626 -0.532826 117 95 61
1.6 -0.32 -0.0103632 -0.625605 0.00844566 -0.780094 119 90 54
1.58973 -0.32 -0 -0.710257 0.00634697 -0.703914 119 90 54
1.68 -0.32 -0.0098422 -0.161651 0.00969381 -0.9868 110 81 41
1.76 -0.32 -0.0360928 -0.76606 0.0174069 -0.642534 111 83 43
1.77788 -0.32 -0.08 -0.861804 0.0132274 -0.507069 113 92 57
1.6 -0.4 -0.00615437 -0.63384 -0.0180277 -0.773254 100 76 44
1.59345 -0.4 -0 -0.684873 -0.0169533 -0.728465 100 76 44
1.68 -0.4 -0.00941484 -0.13685 -0.043836 -0.989621 107 79 41
1.76 -0.4 -0.0379261 -0.796152 -0.0496904 -0.603052 111 82 43
1.77822 -0.4 -0.08 -0.857047 0.0178579 -0.514928 106 87 55
1.6 -0.48 -0.00621585 -0.404089 0.749004 -0.525077 102 77 45
1.59295 -0.48 -0 -0.661707 0.000624459 -0.749762 102 77 45
1.68 -0.48 -0.0104296 0.000569057 0.585553 -0.810634 98 74 39
1.76 -0.48 -0.00999355 -0.677777 0.486761 -0.551073 103 77 41
1.77514 -0.48 -0.08 -0.798195 0.4479 -0.402828 107 88 59
1.36 -0.53827 -0.08 0.0146585 0.999889 -0.00257829 89 92 84
1.28 -0.53529 -0 0.0187686 0.999653 -0.0184647 89 92 84
1.36 -0.536704 -0 0.0109136 0.999747 -0.0196856 89 92 84
1.28 -0.53668 -0.08 0.0263135 0.999626 0.00748657 89 92 84
1.44 -0.538622 -0.08 -0.0304366 0.999301 -0.0216864 88 90 83
1.44 -0.537017 -0 -0.0526472 0.997949 -0.0364051 88 90 83
1.52 -0.532458 -0.08 -0.0647663 0.994852 -0.0779375 82 85 75
1.52 -0.525515 -0 -0.20447 0.957415 -0.203836 82 85 75
1.6 -0.530299 -0.08 -0.0749701 0.955905 -0.283946 92 76 48
1.68 -0.532258 -0.08 -0.0378036 0.927758 -0.371262 101 77 45
1.76 -0.498921 -0.08 -0.656245 0.684319 -0.317883 99 74 37
1.84 -0.08 -0.148574 -0.576728 -0.0316333 -0.816323 180 177 163
1.84 -0 -0.146471 -0.81196 0.018805 -0.583411 180 177 163
1.84 -0.16 -0.142513 -0.428132 -0.0173179 -0.90355 178 178 161
1.92 -0.16 -0.142277 -0.00104949 0.0207643 -0.999784 34 27 50
1.92 -0.08 -0.149619 -0.0130036 -0.0913817 -0.995731 34 27 50
1.84 -0.24 -0.140041 -0.422153 -0.0428988 -0.905509 176 176 161
1.92 -0.24 -0.15237 -0.111954 -0.106932 -0.987943 33 25 49
1.84 -0.32 -0.140825 -0.287334 -0.0130517 -0.957742 171 171 158
1.92 -0.32 -0.130317 0.0621608 -0.120927 -0.990713 32 25 49
1.84 -0.4 -0.140426 -0.236447 0.00251701 -0.971641 169 168 156
1.92 -0.4 -0.12109 0.208042 -0.0826969 -0.974618 34 26 49
1.84 -0.48 -0.145556 -0.151145 0.458456 -0.87577 165 164 151
1.92 -0.48 -0.112416 0.323956 0.286767 -0.901564 31 24 47
1.36 -0.536713 -0.16 0.0325903 0.999329 0.0167243 108 110 101
1.28 -0.533056 -0.16 0.0375139 0.999137 0.0178279 108 110 101
1.44 -0.538857 -0.16 0.0070638 0.99997 0.00312233 92 95 87
1.52 -0.537781 -0.16 0.000449608 0.99962 -0.0275512 91 90 77
1.6 -0.541081 -0.16 0.000266358 0.998563 -0.0535952 85 66 41
1.68 -0.537627 -0.16 -0.097053 0.991734 -0.0839341 100 76 43
1.76 -0.520756 -0.16 -0.201432 0.949626 -0.240073 95 75 41
1.84 -0.500723 -0.16 -0.0751061 0.711992 -0.698159 89 85 73
1.92 -0.543905 -0.16 0.432313 0.800918 -0.41429 30 24 45
1.36 -0.536173 -0.24 0.0207397 0.999777 0.00403927 119 121 112
1.28 -0.535123 -0.24 0.0103213 0.999867 -0.0126464 119 121 112
1.44 -0.538059 -0.24 0.0193367 0.999725 0.0132368 109 111 103
1.52 -0.539027 -0.24 0.00345485 0.999993 -0.00112633 99 100 90
1.6 -0.538822 -0.24 0.0155245 0.999812 0.0116154 93 84 64
1.68 -0.541462 -0.24 -0.00779962 0.999915 -0.010426 98 80 54
1.76 -0.536768 -0.24 -0.00657114 0.99377 -0.111261 105 102 86
1.84 -0.544714 -0.24 0.0190367 0.978614 -0.204824 37 29 48
1.92 -0.545654 -0.24 0.131663 0.981938 -0.135876 30 25 45
1.36 -0.535683 -0.32 0.00804722 0.999953 -0.00534474 115 118 109
1.28 -0.535528 -0.32 0.008401 0.999962 -0.00248021 115 118 109
1.44 -0.536497 -0.32 0.0152002 0.999884 0.00131611 117 120 111
1.52 -0.538171 -0.32 0.015726 0.999861 0.00562166 114 116 106
1.6 -0.53917 -0.32 0.0013945 0.999995 -0.00267945 103 100 88
1.68 -0.538508 -0.32 0.0308644 0.999505 0.00611632 91 86 75
1.76 -0.54309 -0.32 0.0357561 0.998645 -0.037801 56 53 60
1.84 -0.546251 -0.32 0.0298957 0.998884 -0.0365627 42 39 53
1.92 -0.546529 -0.32 0.00554268 0.99953 -0.0301477 67 69 65
1.36 -0.536709 -0.4 0.0225603 0.999738 0.00384619 106 110 99
1.28 -0.534485 -0.4 0.0136272 0.9999 0.00381758 106 110 99
1.44 -0.537904 -0.4 0.010365 0.999825 -0.0155992 110 112 103
1.52 -0.538283 -0.4 0.00515358 0.999958 -0.00750593 111 113 102
1.6 -0.539364 -0.4 0.014005 0.999888 0.00527606 109 109 98
1.68 -0.539451 -0.4 0.030975 0.999379 -0.0168055 97 98 90
1.76 -0.544853 -0.4 0.0664345 0.997539 -0.0224347 75 77 75
1.84 -0.549214 -0.4 0.0334234 0.998078 -0.0521928 79 81 78
1.92 -0.550151 -0.4 0.00962699 0.997972 -0.062919 85 87 82
1.36 -0.534874 -0.48 0.0110067 0.99992 -0.00622085 95 97 86
1.28 -0.537186 -0.48 -0.0130573 0.999744 -0.018459 95 97 86
1.44 -0.538908 -0.48 0.027295 0.999592 0.00835717 104 105 93
1.52 -0.540008 -0.48 -0.00381384 0.999978 -0.00541201 108 109 100
1.6 -0.537251 -0.48 0.0226113 0.999641 0.0144011 104 106 98
1.68 -0.541715 -0.48 0.0396828 0.999105 -0.0146149 101 104 97
1.76 -0.545798 -0.48 0.0839863 0.99634 -0.0158828 92 94 88
1.84 -0.554557 -0.48 0.0556413 0.997043 -0.0530038 82 83 78
1.92 -0.556955 -0.48 0.0208063 0.996917 -0.0756545 86 87 81
1.36 -0.537662 -0.56 0.0109857 0.999716 -0.0211325 96 97 86
1.28 -0.534909 -0.56 0.0369909 0.999307 0.00414915 96 97 86
1.44 -0.537326 -0.56 0.0171294 0.999834 0.00611629 96 98 87
1.52 -0.538218 -0.56 0.0124471 0.999701 0.0210678 102 103 94
1.36 -0.539692 -0.64 0.0395751 0.999013 -0.0201576 99 102 89
1.28 -0.536106 -0.64 0.0447712 0.998885 -0.0149538 99 102 89
-3.93621 0.56 1.44 0.938196 0.242237 0.247204 225 227 222
-3.92 0.56 1.40608 0.8387 0.368677 0.400824 225 227 222
-3.92 0.610099 1.36 0.752036 0.479249 0.452507 225 227 222
-3.94024 0.64 1.36 0.936942 -0.0155089 0.34914 225 227 222
-3.93243 0.64 1.44 0.994179 -0.046941 -0.0969753 225 227 222
1.68 1.9173 3.12 -0.725818 0.598509 -0.339079 73 79 79
1.68 1.92 3.12463 -0.724455 0.595499 -0.347198 73 79 79
1.68222 1.92 3.12 -0.7267 0.597344 -0.339245 73 79 79
1.64583 1.6 3.12 -0.601907 -0.671334 -0.432456 69 75 74
1.6 1.6 3.15342 -0.296359 -0.578386 -0.760027 69 75 74
1.6 1.62606 3.12 -0.420973 -0.740219 -0.524268 69 75 74
1.68 1.52 3.16563 -0.420623 -0.654738 -0.628008 66 72 72
1.63524 1.52 3.12 0.587861 -0.168984 -0.791116 66 72 72
1.6 1.54819 3.12 0.486346 0.557804 -0.67255 66 72 72
1.68 1.55849 3.12 -0.853136 -0.475725 -0.214113 66 72 72
1.69496 1.52 3.12 -0.927185 -0.350888 -0.131171 70 76 76
1.68 1.49344 3.2 -0.166334 -0.802387 -0.573156 67 73 72
1.6 1.5067 3.12 0.311057 -0.823618 -0.474234 67 73 72
1.6 1.46278 3.2 0.318446 -0.830953 -0.456189 67 73 72
1.73112 1.44 3.2 -0.993643 -0.0893498 0.0684858 67 73 72
1.71099 1.44 3.12 -0.987474 -0.0662747 0.14319 67 73 72
1.70647 1.36 3.2 -0.992406 0.122645 -0.00937228 65 71 69
1.71368 1.36 3.12 -0.998276 0.01342 -0.0571428 65 71 69
1.6971 1.28 3.2 -0.989272 0.114973 -0.0901226 65 70 70
1.70446 1.28 3.12 -0.990074 0.0958358 -0.102808 65 70 70
